17.4474 5.01 5.01 2 4 1
17.4074 5.01002 5.01002 2 4 1
17.3674 5.01005 5.01005 2 4 1
17.2874 5.01009 5.01009 2 4 1
17.1874 5.01015 5.01015 2 4 1
17.0874 5.01021 5.01021 2 4 1
16.9874 5.01027 5.01027 2 4 1
16.8874 5.01033 5.01033 2 4 1
16.7874 5.01039 5.01039 2 4 1
16.6874 5.01045 5.01045 2 4 1
16.5874 5.01051 5.01051 2 4 1
16.4874 5.01058 5.01058 2 4 1
16.3874 5.01064 5.01064 2 4 1
16.2874 5.01071 5.01071 2 4 1
16.1874 5.01077 5.01077 2 4 1
16.0874 5.01084 5.01084 2 4 1
15.9874 5.0109 5.0109 2 4 1
15.8874 5.01097 5.01097 2 4 1
15.7874 5.01104 5.01104 2 4 1
15.6874 5.01111 5.01111 2 4 1
15.5874 5.01118 5.01118 2 4 1
15.4874 5.01125 5.01125 2 4 1
15.3874 5.01133 5.01133 2 4 1
15.2874 5.0114 5.0114 2 4 1
15.1874 5.01147 5.01147 2 4 1
15.0874 5.01155 5.01155 2 4 1
14.9874 5.01163 5.01163 2 4 1
14.8874 5.0117 5.0117 2 4 1
14.7874 5.01178 5.01178 2 4 1
14.6874 5.01186 5.01186 2 4 1
14.5874 5.01194 5.01194 2 4 1
14.4874 5.01202 5.01202 2 4 1
14.3874 5.01211 5.01211 2 4 1
14.2874 5.01219 5.01219 2 4 1
14.1874 5.01228 5.01228 2 4 1
14.0874 5.01236 5.01236 2 4 1
13.9874 5.01245 5.01245 2 4 1
13.8874 5.01254 5.01254 2 4 1
13.7874 5.01263 5.01263 2 4 1
13.6874 5.01272 5.01272 2 4 1
13.5874 5.01281 5.01281 2 4 1
13.4874 5.01291 5.01291 2 4 1
13.3874 5.013 5.013 2 4 1
13.2874 5.0131 5.0131 2 4 1
13.1874 5.0132 5.0132 2 4 1
13.0874 5.0133 5.0133 2 4 1
12.9874 5.0134 5.0134 2 4 1
12.8874 5.0135 5.0135 2 4 1
12.7874 5.0136 5.0136 2 4 1
12.6874 5.01371 5.01371 2 4 1
12.5874 5.01382 5.01382 2 4 1
12.4874 5.01393 5.01393 2 4 1
12.3874 5.01404 5.01404 2 4 1
12.2874 5.01415 5.01415 2 4 1
12.1874 5.01427 5.01427 2 4 1
12.0874 5.01438 5.01438 2 4 1
11.9874 5.0145 5.0145 2 4 1
11.8874 5.01462 5.01462 2 4 1
11.7874 5.01475 5.01475 2 4 1
11.6874 5.01487 5.01487 2 4 1
11.5874 5.015 5.015 2 4 1
11.4874 5.01513 5.01513 2 4 1
11.3874 5.01526 5.01526 2 4 1
11.2874 5.01539 5.01539 2 4 1
11.1874 5.01553 5.01553 2 4 1
11.0874 5.01567 5.01567 2 4 1
10.9874 5.01581 5.01581 2 4 1
10.8874 5.01595 5.01595 2 4 1
10.7874 5.0161 5.0161 2 4 1
10.6874 5.01624 5.01624 2 4 1
10.5874 5.0164 5.0164 2 4 1
10.4874 5.01655 5.01655 2 4 1
10.3874 5.01671 5.01671 2 4 1
10.2874 5.01687 5.01687 2 4 1
10.1874 5.01703 5.01703 2 4 1
10.0874 5.0172 5.0172 2 4 1
9.9874 5.01737 5.01737 2 4 1
9.8874 5.01754 5.01754 2 4 1
9.7874 5.01772 5.01772 2 4 1
9.6874 5.0179 5.0179 2 4 1
9.5874 5.01808 5.01808 2 4 1
9.4874 5.01827 5.01827 2 4 1
9.3874 5.01846 5.01846 2 4 1
9.2874 5.01866 5.01866 2 4 1
9.1874 5.01886 5.01886 2 4 1
9.0874 5.01906 5.01906 2 4 1
8.9874 5.01927 5.01927 2 4 1
8.8874 5.01948 5.01948 2 4 1
8.7874 5.0197 5.0197 2 4 1
8.6874 5.01993 5.01993 2 4 1
8.5874 5.02015 5.02015 2 4 1
8.4874 5.02039 5.02039 2 4 1
8.3874 5.02063 5.02063 2 4 1
8.2874 5.02087 5.02087 2 4 1
8.1874 5.02112 5.02112 2 4 1
8.0874 5.02138 5.02138 2 4 1
7.9874 5.02164 5.02164 2 4 1
7.8874 5.02191 5.02191 2 4 1
7.78741 5.02219 5.02219 2 4 1
7.68741 5.02247 5.02247 2 4 1
7.58741 5.02276 5.02276 2 4 1
7.48741 5.02306 5.02306 2 4 1
7.38741 5.02337 5.02337 2 4 1
7.28741 5.02368 5.02368 2 4 1
7.18741 5.024 5.024 2 4 1
7.08741 5.02434 5.02434 2 4 1
6.98741 5.02468 5.02468 2 4 1
6.88741 5.02503 5.02503 2 4 1
6.78741 5.02539 5.02539 2 4 1
6.68741 5.02576 5.02576 2 4 1
6.58742 5.02615 5.02615 2 4 1
6.48742 5.02654 5.02654 2 4 1
6.38742 5.02695 5.02695 2 4 1
6.28742 5.02737 5.02737 2 4 1
6.18742 5.0278 5.0278 2 4 1
6.08742 5.02824 5.02824 2 4 1
5.98742 5.02871 5.02871 2 4 1
5.88743 5.02918 5.02918 2 4 1
5.78743 5.02967 5.02967 2 4 1
5.68743 5.03018 5.03018 2 4 1
5.58743 5.03071 5.03071 2 4 1
5.48743 5.03126 5.03126 2 4 1
5.38744 5.03182 5.03182 2 4 1
5.28744 5.03241 5.03241 2 4 1
5.18744 5.03302 5.03302 2 4 1
5.08744 5.03365 5.03365 2 4 1
4.98745 5.0343 5.0343 2 4 1
4.88745 5.03499 5.03499 2 4 1
4.78746 5.03569 5.03569 2 4 1
4.68746 5.03643 5.03643 2 4 1
4.58746 5.0372 5.0372 2 4 1
4.48747 5.03801 5.03801 2 4 1
4.38747 5.03885 5.03885 2 4 1
4.28748 5.03972 5.03972 2 4 1
4.18749 5.04064 5.04064 2 4 1
4.08749 5.0416 5.0416 2 4 1
3.9875 5.04261 5.04261 2 4 1
3.88751 5.04367 5.04367 2 4 1
3.78752 5.04478 5.04478 2 4 1
3.68753 5.04595 5.04595 2 4 1
3.58754 5.04718 5.04718 2 4 1
3.48755 5.04848 5.04848 2 4 1
3.38757 5.04985 5.04985 2 4 1
3.28758 5.0513 5.0513 2 4 1
3.1876 5.05284 5.05284 2 4 1
3.08762 5.05447 5.05447 2 4 1
2.98764 5.05621 5.05621 2 4 1
2.88767 5.05807 5.05807 2 4 1
2.7877 5.06004 5.06004 2 4 1
2.68773 5.06216 5.06216 2 4 1
2.58777 5.06444 5.06444 2 4 1
2.48782 5.06688 5.06688 2 4 1
2.38787 5.06952 5.06952 2 4 1
2.28793 5.07237 5.07237 2 4 1
2.188 5.07546 5.07546 2 4 1
2.08809 5.07884 5.07884 2 4 1
1.98819 5.08252 5.08252 2 4 1
1.88831 5.08656 5.08656 2 4 1
1.78846 5.09102 5.09102 2 4 1
1.68864 5.09596 5.09596 2 4 1
1.58887 5.10146 5.10146 2 4 1
1.48915 5.10762 5.10762 2 4 1
1.38951 5.11458 5.11458 2 4 1
1.28997 5.12247 5.12247 2 4 1
1.19073 5.13271 5.13271 2 4 1
1.0916 5.14345 5.14345 2 4 1
0.992815 5.15602 5.15602 2 4 1
0.89451 5.17094 5.17094 2 4 1
0.796962 5.18885 5.18885 2 4 1
0.7006 5.21066 5.21066 2 4 1
0.60639 5.2376 5.2376 2 4 1
0.515281 5.27101 5.27101 2 4 1
0.429353 5.31246 5.31246 2 4 1
0.351159 5.36301 5.36301 2 4 1
0.283158 5.42251 5.42251 2 4 1
0.2265 5.48941 5.48941 2 4 1
0.180564 5.5616 5.5616 2 4 1
0.143666 5.63721 5.63721 2 4 1
0.113911 5.71497 5.71497 2 4 1
0.0896655 5.79409 5.79409 2 4 1
0.0696536 5.87412 5.87412 2 4 1
0.0528441 5.95479 5.95479 2 4 1
0.0387058 6.03591 6.03591 2 4 1
0.0265996 6.1174 6.1174 2 4 1
0.0161318 6.1992 6.1992 2 4 1
0.00699934 6.28128 6.28128 2 4 1
-0.00102974 6.36361 6.36361 2 4 1
