1.43145 0.0792315 0.0792315 1 10 0
1.43645 0.0792316 0.0792316 1 10 0
1.44145 0.0792316 0.0792316 1 10 0
1.44645 0.0792317 0.0792317 1 10 0
1.45145 0.0792317 0.0792317 1 10 0
1.45645 0.0792318 0.0792318 1 10 0
1.46145 0.0792318 0.0792318 1 10 0
1.46645 0.0792319 0.0792319 1 10 0
1.47145 0.0792319 0.0792319 1 10 0
1.47645 0.079232 0.079232 1 10 0
1.48145 0.079232 0.079232 1 10 0
1.48645 0.0792321 0.0792321 1 10 0
1.49145 0.0792321 0.0792321 1 10 0
1.49645 0.0792322 0.0792322 1 10 0
1.50145 0.0792322 0.0792322 1 10 0
1.50645 0.0792323 0.0792323 1 10 0
1.51145 0.0792323 0.0792323 1 10 0
1.51645 0.0792324 0.0792324 1 10 0
1.52145 0.0792324 0.0792324 1 10 0
1.52645 0.0792324 0.0792324 1 10 0
1.53145 0.0792325 0.0792325 1 10 0
1.53645 0.0792325 0.0792325 1 10 0
1.54145 0.0792326 0.0792326 1 10 0
1.54645 0.0792326 0.0792326 1 10 0
1.55145 0.0792327 0.0792327 1 10 0
1.55645 0.0792327 0.0792327 1 10 0
1.56145 0.0792328 0.0792328 1 10 0
1.56645 0.0792328 0.0792328 1 10 0
0.315466 0.0791797 0.0791797 2 11 0
0.310466 0.0791786 0.0791786 1 11 0
0.305466 0.0791775 0.0791775 1 11 0
0.300466 0.0791764 0.0791764 1 11 0
0.295466 0.0791752 0.0791752 1 11 0
0.290466 0.079174 0.079174 1 11 0
0.285466 0.0791727 0.0791727 1 11 0
0.280466 0.0791714 0.0791714 1 11 0
0.275466 0.0791701 0.0791701 1 11 0
0.270466 0.0791687 0.0791687 1 11 0
0.265466 0.0791672 0.0791672 1 11 0
0.260466 0.0791657 0.0791657 1 11 0
0.255466 0.0791641 0.0791641 1 11 0
0.250466 0.0791625 0.0791625 1 11 0
0.245466 0.0791608 0.0791608 1 11 0
0.240466 0.0791591 0.0791591 1 11 0
0.235466 0.0791572 0.0791572 1 11 0
0.230466 0.0791553 0.0791553 1 11 0
0.225466 0.0791533 0.0791533 1 11 0
0.220466 0.0791512 0.0791512 1 11 0
0.215466 0.079149 0.079149 1 11 0
0.210466 0.0791467 0.0791467 1 11 0
0.205466 0.0791443 0.0791443 1 11 0
0.200466 0.0791418 0.0791418 1 11 0
0.195466 0.0791391 0.0791391 1 11 0
0.190466 0.0791363 0.0791363 1 11 0
0.185466 0.0791334 0.0791334 1 11 0
0.180466 0.0791303 0.0791303 1 11 0
0.175466 0.079127 0.079127 1 11 0
0.170466 0.0791235 0.0791235 1 11 0
0.165466 0.0791198 0.0791198 1 11 0
0.160466 0.0791159 0.0791159 1 11 0
0.155466 0.0791118 0.0791118 1 11 0
0.150466 0.0791073 0.0791073 1 11 0
0.145466 0.0791026 0.0791026 1 11 0
0.145466 0.0791026 0.0791026 1 11 0
0.140466 0.0790975 0.0790975 1 11 0
0.140466 0.0789923 0.0789923 1 11 0
0.135467 0.0790921 0.0790921 1 11 0
0.130466 0.0790863 0.0790863 1 11 0
0.125466 0.0790799 0.0790799 1 11 0
0.120466 0.0790731 0.0790731 1 11 0
0.115466 0.0790657 0.0790657 1 11 0
0.110466 0.0790576 0.0790576 1 11 0
0.105466 0.0790488 0.0790488 1 11 0
0.100466 0.0790391 0.0790391 1 11 0
0.0954656 0.0790284 0.0790284 1 11 0
0.0904656 0.0790165 0.0790165 1 11 0
0.0854656 0.0790033 0.0790033 1 11 0
0.0804656 0.0789884 0.0789884 1 11 0
0.0754657 0.0789716 0.0789716 1 11 0
0.0704657 0.0789524 0.0789524 1 11 0
0.0654657 0.0789304 0.0789304 1 11 0
0.0604658 0.0789049 0.0789049 1 11 0
0.0554659 0.0788748 0.0788748 1 11 0
0.050466 0.0788389 0.0788389 1 11 0
0.0454661 0.078803 0.078803 1 11 0
0.0404665 0.0787413 0.0787413 1 11 0
0.0354669 0.0786725 0.0786725 1 11 0
0.0304677 0.0785821 0.0785821 1 11 0
0.0254691 0.0784579 0.0784579 1 11 0
0.0204721 0.0782767 0.0782767 1 11 0
0.0154804 0.0779874 0.0779874 1 11 0
0.0105089 0.0774549 0.0774549 1 11 0
0.00566923 0.0761976 0.0761976 1 11 0
0.0020417 0.0727565 0.0727565 1 11 0
0.0012036 0.0704011 0.0704011 1 11 0
0.000709438 0.0679491 0.0679491 1 11 0
0.000282725 0.0642221 0.0642221 1 11 0
5.65362e-06 0.0592297 0.0592297 1 11 0
-0.000182145 0.0542324 0.0542324 1 11 0
0.315466 0.0791797 0.0791797 2 11 0
0.320466 0.0791807 0.0791807 1 11 0
0.325466 0.0791817 0.0791817 1 11 0
0.330466 0.0791827 0.0791827 1 11 0
0.335466 0.0791837 0.0791837 1 11 0
0.340466 0.0791846 0.0791846 1 11 0
0.345466 0.0791855 0.0791855 1 11 0
0.350466 0.0791863 0.0791863 1 11 0
0.355466 0.0791872 0.0791872 1 11 0
0.360466 0.079188 0.079188 1 11 0
0.365466 0.0791888 0.0791888 1 11 0
0.365466 0.0791888 0.0791888 1 11 0
0.370466 0.0791895 0.0791895 1 11 0
0.375466 0.0791903 0.0791903 1 11 0
0.380466 0.079191 0.079191 1 11 0
0.385466 0.0791917 0.0791917 1 11 0
0.390466 0.0791924 0.0791924 1 11 0
0.395466 0.0791931 0.0791931 1 11 0
0.400466 0.0791938 0.0791938 1 11 0
0.405466 0.0791944 0.0791944 1 11 0
0.410466 0.0791951 0.0791951 1 11 0
0.415466 0.0791957 0.0791957 1 11 0
0.420466 0.0791963 0.0791963 1 11 0
0.425466 0.0791969 0.0791969 1 11 0
0.430466 0.0791974 0.0791974 1 11 0
0.435466 0.079198 0.079198 1 11 0
0.440466 0.0791985 0.0791985 1 11 0
0.445466 0.0791991 0.0791991 1 11 0
0.450466 0.0791996 0.0791996 1 11 0
0.455466 0.0792001 0.0792001 1 11 0
0.460466 0.0792006 0.0792006 1 11 0
0.465466 0.0792011 0.0792011 1 11 0
0.470466 0.0792016 0.0792016 1 11 0
0.475466 0.079202 0.079202 1 11 0
0.480466 0.0792025 0.0792025 1 11 0
0.485466 0.0792029 0.0792029 1 11 0
0.490466 0.0792034 0.0792034 1 11 0
0.495466 0.0792038 0.0792038 1 11 0
0.500466 0.0792042 0.0792042 1 11 0
0.505466 0.0792046 0.0792046 1 11 0
0.510466 0.0792051 0.0792051 1 11 0
0.515466 0.0792055 0.0792055 1 11 0
0.520466 0.0792058 0.0792058 1 11 0
0.525466 0.0792062 0.0792062 1 11 0
0.530466 0.0792066 0.0792066 1 11 0
0.537255 0.0792071 0.0792071 1 11 0
0.542255 0.0792075 0.0792075 1 11 0
0.547255 0.0792078 0.0792078 1 11 0
0.547255 0.0792078 0.0792078 1 11 0
0.552255 0.0792082 0.0792082 1 11 0
0.557255 0.0792085 0.0792085 1 11 0
0.562255 0.0792088 0.0792088 1 11 0
0.567255 0.0792092 0.0792092 1 11 0
0.572255 0.0792095 0.0792095 1 11 0
0.577255 0.0792098 0.0792098 1 11 0
0.582255 0.0792101 0.0792101 1 11 0
0.587255 0.0792104 0.0792104 1 11 0
0.592255 0.0792107 0.0792107 1 11 0
0.597255 0.079211 0.079211 1 11 0
0.602255 0.0792113 0.0792113 1 11 0
0.607255 0.0792116 0.0792116 1 11 0
0.612255 0.0792119 0.0792119 1 11 0
0.617255 0.0792122 0.0792122 1 11 0
0.622255 0.0792124 0.0792124 1 11 0
0.627255 0.0792127 0.0792127 1 11 0
0.632255 0.079213 0.079213 1 11 0
0.637255 0.0792132 0.0792132 1 11 0
0.642255 0.0792135 0.0792135 1 11 0
0.647255 0.0792137 0.0792137 1 11 0
0.652255 0.079214 0.079214 1 11 0
0.657255 0.0792142 0.0792142 1 11 0
0.662255 0.0792145 0.0792145 1 11 0
0.667255 0.0792147 0.0792147 1 11 0
0.672255 0.0792149 0.0792149 1 11 0
0.677255 0.0792152 0.0792152 1 11 0
0.682255 0.0792154 0.0792154 1 11 0
0.687255 0.0792156 0.0792156 1 11 0
0.692255 0.0792159 0.0792159 1 11 0
0.697255 0.0792161 0.0792161 1 11 0
0.702255 0.0792163 0.0792163 1 11 0
0.707255 0.0792165 0.0792165 1 11 0
0.712255 0.0792167 0.0792167 1 11 0
0.717255 0.0792169 0.0792169 1 11 0
0.722255 0.0792171 0.0792171 1 11 0
0.727255 0.0792173 0.0792173 1 11 0
0.732255 0.0792175 0.0792175 1 11 0
0.737255 0.0792177 0.0792177 1 11 0
0.742255 0.0792179 0.0792179 1 11 0
0.747255 0.0792181 0.0792181 1 11 0
0.752255 0.0792183 0.0792183 1 11 0
0.757255 0.0792185 0.0792185 1 11 0
0.762255 0.0792186 0.0792186 1 11 0
0.767255 0.0792188 0.0792188 1 11 0
0.772255 0.079219 0.079219 1 11 0
0.777255 0.0792192 0.0792192 1 11 0
0.782255 0.0792193 0.0792193 1 11 0
0.787255 0.0792195 0.0792195 1 11 0
0.792255 0.0792197 0.0792197 1 11 0
0.797255 0.0792198 0.0792198 1 11 0
0.797255 0.0792198 0.0792198 1 11 0
0.802255 0.07922 0.07922 1 11 0
0.807255 0.0792202 0.0792202 1 11 0
0.812255 0.0792203 0.0792203 1 11 0
0.817255 0.0792205 0.0792205 1 11 0
0.822255 0.0792206 0.0792206 1 11 0
0.827255 0.0792208 0.0792208 1 11 0
0.832255 0.079221 0.079221 1 11 0
0.837255 0.0792211 0.0792211 1 11 0
0.842255 0.0792213 0.0792213 1 11 0
0.847255 0.0792214 0.0792214 1 11 0
0.852255 0.0792215 0.0792215 1 11 0
0.857255 0.0792217 0.0792217 1 11 0
0.862255 0.0792218 0.0792218 1 11 0
0.867255 0.079222 0.079222 1 11 0
0.872255 0.0792221 0.0792221 1 11 0
0.877255 0.0792222 0.0792222 1 11 0
0.882255 0.0792224 0.0792224 1 11 0
0.887255 0.0792225 0.0792225 1 11 0
0.892255 0.0792227 0.0792227 1 11 0
0.897255 0.0792228 0.0792228 1 11 0
0.902255 0.0792229 0.0792229 1 11 0
0.907255 0.079223 0.079223 1 11 0
0.912255 0.0792232 0.0792232 1 11 0
0.975226 0.0792247 0.0792247 1 11 0
0.980226 0.0792248 0.0792248 1 11 0
0.985226 0.0792249 0.0792249 1 11 0
0.990226 0.079225 0.079225 1 11 0
0.995226 0.0792251 0.0792251 1 11 0
1.00023 0.0792252 0.0792252 1 11 0
1.00523 0.0792253 0.0792253 1 11 0
1.01023 0.0792254 0.0792254 1 11 0
1.01523 0.0792255 0.0792255 1 11 0
1.02023 0.0792256 0.0792256 1 11 0
1.02523 0.0792257 0.0792257 1 11 0
1.02773 0.0792258 0.0792258 1 11 0
1.03273 0.0792259 0.0792259 1 11 0
1.03773 0.079226 0.079226 1 11 0
1.04273 0.0792261 0.0792261 1 11 0
1.04773 0.0792261 0.0792261 1 11 0
1.05273 0.0792262 0.0792262 1 11 0
1.05773 0.0792263 0.0792263 1 11 0
1.06273 0.0792264 0.0792264 1 11 0
1.06773 0.0792265 0.0792265 1 11 0
1.07273 0.0792266 0.0792266 1 11 0
1.07773 0.0792267 0.0792267 1 11 0
1.08273 0.0792268 0.0792268 1 11 0
1.08773 0.0792269 0.0792269 1 11 0
1.09273 0.079227 0.079227 1 11 0
1.09773 0.0792271 0.0792271 1 11 0
1.10273 0.0792271 0.0792271 1 11 0
1.10773 0.0792272 0.0792272 1 11 0
1.10773 0.0792272 0.0792272 1 11 0
1.11273 0.0792273 0.0792273 1 11 0
1.11773 0.0792274 0.0792274 1 11 0
1.12273 0.0792275 0.0792275 1 11 0
1.12773 0.0792276 0.0792276 1 11 0
1.13273 0.0792277 0.0792277 1 11 0
1.13773 0.0792277 0.0792277 1 11 0
1.14273 0.0792278 0.0792278 1 11 0
1.14773 0.0792279 0.0792279 1 11 0
1.15273 0.079228 0.079228 1 11 0
1.15773 0.0792281 0.0792281 1 11 0
1.16273 0.0792281 0.0792281 1 11 0
1.16273 0.0792281 0.0792281 1 11 0
1.16773 0.0792282 0.0792282 1 11 0
1.17273 0.0792283 0.0792283 1 11 0
1.17773 0.0792284 0.0792284 1 11 0
1.18273 0.0792284 0.0792284 1 11 0
1.18773 0.0792285 0.0792285 1 11 0
1.19273 0.0792286 0.0792286 1 11 0
1.19773 0.0792287 0.0792287 1 11 0
1.20273 0.0792287 0.0792287 1 11 0
1.20773 0.0792288 0.0792288 1 11 0
1.21273 0.0792289 0.0792289 1 11 0
1.21773 0.079229 0.079229 1 11 0
1.22273 0.079229 0.079229 1 11 0
1.22284 0.079229 0.079229 1 11 0
1.22784 0.0792291 0.0792291 1 11 0
1.22784 0.0792291 0.0792291 1 11 0
1.23284 0.0792292 0.0792292 1 11 0
1.23784 0.0792292 0.0792292 1 11 0
1.24284 0.0792293 0.0792293 1 11 0
1.24784 0.0792294 0.0792294 1 11 0
1.25284 0.0792294 0.0792294 1 11 0
1.25784 0.0792295 0.0792295 1 11 0
1.26284 0.0792296 0.0792296 1 11 0
1.26784 0.0792296 0.0792296 1 11 0
1.27284 0.0792297 0.0792297 1 11 0
1.27784 0.0792298 0.0792298 1 11 0
1.28284 0.0792298 0.0792298 1 11 0
1.28784 0.0792299 0.0792299 1 11 0
1.29284 0.07923 0.07923 1 11 0
1.29784 0.07923 0.07923 1 11 0
1.30284 0.0792301 0.0792301 1 11 0
1.30784 0.0792301 0.0792301 1 11 0
1.31284 0.0792302 0.0792302 1 11 0
1.31784 0.0792303 0.0792303 1 11 0
1.32284 0.0792303 0.0792303 1 11 0
1.32784 0.0792304 0.0792304 1 11 0
1.33284 0.0792304 0.0792304 1 11 0
0.210466 0.0791467 0.0791467 2 12 0
0.205466 0.0791443 0.0791443 1 12 0
0.200466 0.0791419 0.0791419 1 12 0
0.195466 0.0791395 0.0791395 1 12 0
0.190466 0.0791363 0.0791363 1 12 0
0.185466 0.0791334 0.0791334 1 12 0
0.180466 0.0791303 0.0791303 1 12 0
0.175466 0.079127 0.079127 1 12 0
0.170466 0.0791235 0.0791235 1 12 0
0.165466 0.0791198 0.0791198 1 12 0
0.165466 0.0791198 0.0791198 1 12 0
0.160466 0.0791159 0.0791159 1 12 0
0.155466 0.0791118 0.0791118 1 12 0
0.150466 0.0791073 0.0791073 1 12 0
0.145466 0.0791026 0.0791026 1 12 0
0.140466 0.0790975 0.0790975 1 12 0
0.135466 0.0790921 0.0790921 1 12 0
0.130466 0.0790863 0.0790863 1 12 0
0.125466 0.0790799 0.0790799 1 12 0
0.120466 0.0790731 0.0790731 1 12 0
0.115466 0.0790657 0.0790657 1 12 0
0.110466 0.0790576 0.0790576 1 12 0
0.105466 0.0790488 0.0790488 1 12 0
0.100466 0.0790391 0.0790391 1 12 0
0.0954656 0.0790284 0.0790284 1 12 0
0.0904656 0.0790165 0.0790165 1 12 0
0.0854656 0.0790033 0.0790033 1 12 0
0.0804656 0.0789884 0.0789884 1 12 0
0.0754657 0.0789716 0.0789716 1 12 0
0.0704657 0.0789524 0.0789524 1 12 0
0.0654657 0.0789304 0.0789304 1 12 0
0.0604658 0.0789049 0.0789049 1 12 0
0.0554659 0.0788748 0.0788748 1 12 0
0.050466 0.0788389 0.0788389 1 12 0
0.0454662 0.0787953 0.0787953 1 12 0
0.0404665 0.0787413 0.0787413 1 12 0
0.0354669 0.0786725 0.0786725 1 12 0
0.0304677 0.0785821 0.0785821 1 12 0
0.0254691 0.0784579 0.0784579 1 12 0
0.0204721 0.0782767 0.0782767 1 12 0
0.0154805 0.0779874 0.0779874 1 12 0
0.0104888 0.0776982 0.0776982 1 12 0
0.00571332 0.0762168 0.0762168 1 12 0
0.00206152 0.0728005 0.0728005 1 12 0
-0.000684064 0.0701991 0.0701991 2 12 0
0.210466 0.0791467 0.0791467 2 12 0
0.215466 0.079149 0.079149 2 12 0
0.220466 0.0791512 0.0791512 1 12 0
0.225466 0.0791533 0.0791533 1 12 0
0.230466 0.0791554 0.0791554 1 12 0
0.235466 0.0791572 0.0791572 1 12 0
0.240466 0.0791591 0.0791591 1 12 0
0.245466 0.0791608 0.0791608 1 12 0
0.250466 0.0791626 0.0791626 1 12 0
0.255466 0.0791641 0.0791641 1 12 0
0.260466 0.0791657 0.0791657 1 12 0
0.265466 0.0791672 0.0791672 1 12 0
0.270466 0.0791687 0.0791687 1 12 0
0.275466 0.0791701 0.0791701 1 12 0
0.280466 0.0791714 0.0791714 1 12 0
0.285466 0.0791727 0.0791727 1 12 0
0.290466 0.079174 0.079174 1 12 0
0.295466 0.0791752 0.0791752 1 12 0
0.300466 0.0791764 0.0791764 1 12 0
0.305466 0.0791775 0.0791775 1 12 0
0.310466 0.0791786 0.0791786 1 12 0
0.315466 0.0791797 0.0791797 1 12 0
0.320466 0.0791807 0.0791807 1 12 0
0.320466 0.0791807 0.0791807 1 12 0
0.325466 0.0791817 0.0791817 1 12 0
0.330466 0.0791827 0.0791827 1 12 0
0.335466 0.0791837 0.0791837 1 12 0
0.340466 0.0791846 0.0791846 1 12 0
0.345466 0.0791855 0.0791855 1 12 0
0.350466 0.0791863 0.0791863 1 12 0
0.355466 0.0791872 0.0791872 1 12 0
0.360466 0.079188 0.079188 1 12 0
0.365466 0.0791888 0.0791888 1 12 0
0.370466 0.0791895 0.0791895 1 12 0
0.375466 0.0791903 0.0791903 1 12 0
0.380466 0.079191 0.079191 1 12 0
0.385466 0.0791917 0.0791917 1 12 0
0.390466 0.0791924 0.0791924 1 12 0
0.390466 0.0791924 0.0791924 1 12 0
0.395466 0.0791931 0.0791931 1 12 0
0.400466 0.0791938 0.0791938 1 12 0
0.405466 0.0791944 0.0791944 1 12 0
0.410466 0.0791951 0.0791951 1 12 0
0.415467 0.0791957 0.0791957 1 12 0
0.420467 0.0791963 0.0791963 1 12 0
0.425467 0.0791969 0.0791969 1 12 0
0.430467 0.0791974 0.0791974 1 12 0
0.435467 0.079198 0.079198 1 12 0
0.440467 0.0791985 0.0791985 1 12 0
0.445467 0.0791991 0.0791991 1 12 0
0.450467 0.0791996 0.0791996 1 12 0
0.455467 0.0792001 0.0792001 1 12 0
0.460467 0.0792006 0.0792006 1 12 0
0.465467 0.0792011 0.0792011 1 12 0
0.470467 0.0792016 0.0792016 1 12 0
0.475467 0.079202 0.079202 1 12 0
0.480467 0.0792025 0.0792025 1 12 0
0.485467 0.0792029 0.0792029 1 12 0
0.490467 0.0792034 0.0792034 1 12 0
0.495467 0.0792038 0.0792038 1 12 0
0.500467 0.0792042 0.0792042 1 12 0
0.505467 0.0792046 0.0792046 1 12 0
0.510467 0.0792051 0.0792051 1 12 0
0.515467 0.0792055 0.0792055 1 12 0
0.520467 0.0792059 0.0792059 1 12 0
0.525467 0.0792062 0.0792062 1 12 0
0.530467 0.0792066 0.0792066 1 12 0
0.535467 0.079207 0.079207 1 12 0
0.540467 0.0792073 0.0792073 1 12 0
0.545467 0.0792077 0.0792077 1 12 0
0.550467 0.079208 0.079208 1 12 0
0.555467 0.0792084 0.0792084 1 12 0
0.560467 0.0792087 0.0792087 1 12 0
0.565467 0.0792091 0.0792091 1 12 0
0.570467 0.0792094 0.0792094 1 12 0
0.575467 0.0792097 0.0792097 1 12 0
0.580467 0.07921 0.07921 1 12 0
0.585467 0.0792103 0.0792103 1 12 0
0.590467 0.0792106 0.0792106 1 12 0
0.595467 0.0792109 0.0792109 1 12 0
0.600467 0.0792112 0.0792112 1 12 0
0.605468 0.0792115 0.0792115 1 12 0
0.610468 0.0792118 0.0792118 1 12 0
0.615468 0.0792121 0.0792121 1 12 0
0.620468 0.0792123 0.0792123 1 12 0
0.625468 0.0792126 0.0792126 1 12 0
0.630468 0.0792129 0.0792129 1 12 0
0.663118 0.0792145 0.0792145 1 12 0
0.668118 0.0792148 0.0792148 1 12 0
0.673118 0.079215 0.079215 1 12 0
0.678118 0.0792152 0.0792152 1 12 0
0.683118 0.0792154 0.0792154 1 12 0
0.688118 0.0792157 0.0792157 1 12 0
0.693118 0.0792159 0.0792159 1 12 0
0.698118 0.0792161 0.0792161 1 12 0
0.703118 0.0792163 0.0792163 1 12 0
0.708118 0.0792165 0.0792165 1 12 0
0.713118 0.0792167 0.0792167 1 12 0
0.718118 0.0792169 0.0792169 1 12 0
0.723118 0.0792171 0.0792171 1 12 0
0.728118 0.0792173 0.0792173 1 12 0
0.733118 0.0792175 0.0792175 1 12 0
0.738118 0.0792177 0.0792177 1 12 0
0.743118 0.0792179 0.0792179 1 12 0
0.748118 0.0792181 0.0792181 1 12 0
0.750618 0.0792182 0.0792182 1 12 0
0.755618 0.0792184 0.0792184 1 12 0
0.760618 0.0792186 0.0792186 1 12 0
0.765618 0.0792188 0.0792188 1 12 0
0.770618 0.0792189 0.0792189 1 12 0
0.775618 0.0792191 0.0792191 1 12 0
0.780618 0.0792193 0.0792193 1 12 0
0.785618 0.0792195 0.0792195 1 12 0
0.790618 0.0792196 0.0792196 1 12 0
0.795618 0.0792198 0.0792198 1 12 0
0.800618 0.07922 0.07922 1 12 0
0.805618 0.0792201 0.0792201 1 12 0
0.810618 0.0792203 0.0792203 1 12 0
0.815618 0.0792204 0.0792204 1 12 0
0.820618 0.0792206 0.0792206 1 12 0
0.825618 0.0792208 0.0792208 1 12 0
0.830618 0.0792209 0.0792209 1 12 0
0.835618 0.0792211 0.0792211 1 12 0
0.840618 0.0792212 0.0792212 1 12 0
0.845618 0.0792214 0.0792214 1 12 0
0.850618 0.0792215 0.0792215 1 12 0
0.855618 0.0792216 0.0792216 1 12 0
0.860618 0.0792218 0.0792218 1 12 0
0.865618 0.0792219 0.0792219 1 12 0
0.870618 0.0792221 0.0792221 1 12 0
0.875618 0.0792222 0.0792222 1 12 0
0.880618 0.0792223 0.0792223 1 12 0
0.885618 0.0792225 0.0792225 1 12 0
0.890618 0.0792226 0.0792226 1 12 0
0.895618 0.0792227 0.0792227 1 12 0
0.900618 0.0792229 0.0792229 1 12 0
0.905618 0.079223 0.079223 1 12 0
0.910618 0.0792231 0.0792231 1 12 0
0.915618 0.0792233 0.0792233 1 12 0
0.920618 0.0792234 0.0792234 1 12 0
0.925618 0.0792235 0.0792235 1 12 0
0.925618 0.0792235 0.0792235 1 12 0
0.930618 0.0792236 0.0792236 1 12 0
0.935618 0.0792237 0.0792237 1 12 0
0.940618 0.0792239 0.0792239 1 12 0
0.945618 0.079224 0.079224 1 12 0
0.950618 0.0792241 0.0792241 1 12 0
0.955618 0.0792242 0.0792242 1 12 0
0.960618 0.0792243 0.0792243 1 12 0
0.965618 0.0792244 0.0792244 1 12 0
0.965618 0.0792244 0.0792244 1 12 0
0.970618 0.0792246 0.0792246 2 12 0
0.975618 0.0792247 0.0792247 1 12 0
0.980618 0.0792248 0.0792248 1 12 0
0.985618 0.0792249 0.0792249 1 12 0
0.990618 0.079225 0.079225 1 12 0
0.995618 0.0792251 0.0792251 1 12 0
1.00062 0.0792252 0.0792252 1 12 0
1.00562 0.0792253 0.0792253 1 12 0
1.01062 0.0792254 0.0792254 1 12 0
1.01562 0.0792255 0.0792255 1 12 0
1.02062 0.0792256 0.0792256 1 12 0
1.02077 0.0792256 0.0792256 1 12 0
1.02577 0.0792257 0.0792257 1 12 0
1.03077 0.0792258 0.0792258 1 12 0
1.03577 0.0792257 0.0792257 1 12 0
1.04077 0.079226 0.079226 1 12 0
1.04577 0.0792261 0.0792261 1 12 0
1.05077 0.0792262 0.0792262 1 12 0
1.05577 0.0792263 0.0792263 1 12 0
1.06077 0.0792264 0.0792264 1 12 0
1.06577 0.0792265 0.0792265 1 12 0
1.07077 0.0792266 0.0792266 1 12 0
1.07577 0.0792267 0.0792267 1 12 0
1.08077 0.0792268 0.0792268 1 12 0
1.08577 0.0792269 0.0792269 1 12 0
1.09077 0.0792269 0.0792269 1 12 0
1.09577 0.079227 0.079227 1 12 0
1.10077 0.0792271 0.0792271 1 12 0
1.10577 0.0792272 0.0792272 1 12 0
1.11077 0.0792273 0.0792273 1 12 0
1.11577 0.0792274 0.0792274 1 12 0
1.11827 0.0792274 0.0792274 1 12 0
1.12327 0.0792275 0.0792275 1 12 0
1.12827 0.0792276 0.0792276 1 12 0
1.13327 0.0792277 0.0792277 1 12 0
1.13827 0.0792277 0.0792277 1 12 0
1.14327 0.0792278 0.0792278 1 12 0
1.14333 0.0792278 0.0792278 1 12 0
1.14833 0.0792279 0.0792279 1 12 0
1.14833 0.0792279 0.0792279 1 12 0
1.15333 0.079228 0.079228 1 12 0
1.15833 0.0792281 0.0792281 1 12 0
1.15833 0.0792281 0.0792281 1 12 0
1.16333 0.0792281 0.0792281 1 12 0
1.16833 0.0792282 0.0792282 1 12 0
1.17333 0.0792283 0.0792283 1 12 0
1.17833 0.0792284 0.0792284 1 12 0
1.18333 0.0792284 0.0792284 1 12 0
1.18833 0.0792285 0.0792285 1 12 0
12.7085 0.0792446 0.0792446 2 59 0
12.7185 0.0792446 0.0792446 1 59 0
12.7285 0.0792446 0.0792446 1 59 0
12.7485 0.0792446 0.0792446 1 59 0
12.7885 0.0792446 0.0792446 1 59 0
12.7885 0.0792446 0.0792446 1 59 0
12.8685 0.0792446 0.0792446 1 59 0
12.9685 0.0792446 0.0792446 1 59 0
13.0685 0.0792446 0.0792446 1 59 0
13.1685 0.0792446 0.0792446 1 59 0
13.2685 0.0792447 0.0792447 1 59 0
13.3685 0.0792447 0.0792447 1 59 0
13.4685 0.0792447 0.0792447 1 59 0
13.5685 0.0792447 0.0792447 1 59 0
13.6685 0.0792447 0.0792447 1 59 0
13.7685 0.0792447 0.0792447 1 59 0
13.8685 0.0792447 0.0792447 1 59 0
13.9685 0.0792447 0.0792447 1 59 0
14.0685 0.0792447 0.0792447 1 59 0
14.1685 0.0792448 0.0792448 1 59 0
14.2685 0.0792448 0.0792448 1 59 0
14.3685 0.0792448 0.0792448 1 59 0
14.4685 0.0792448 0.0792448 1 59 0
14.5685 0.0792448 0.0792448 1 59 0
14.6685 0.0792448 0.0792448 1 59 0
14.7685 0.0792448 0.0792448 1 59 0
14.7685 0.0792448 0.0792448 1 59 0
14.8685 0.0792448 0.0792448 1 59 0
14.9685 0.0792448 0.0792448 1 59 0
15.0685 0.0792448 0.0792448 1 59 0
12.7885 0.0792446 0.0792446 2 60 0
12.7935 0.0792446 0.0792446 1 60 0
12.7985 0.0792446 0.0792446 1 60 0
12.8085 0.0792446 0.0792446 1 60 0
12.8285 0.0792446 0.0792446 1 60 0
12.8685 0.0792446 0.0792446 1 60 0
12.9485 0.0792446 0.0792446 1 60 0
13.0485 0.0792446 0.0792446 1 60 0
13.1485 0.0792446 0.0792446 1 60 0
13.2485 0.0792446 0.0792446 1 60 0
13.3485 0.0792447 0.0792447 1 60 0
13.4485 0.0792447 0.0792447 1 60 0
13.5485 0.0792447 0.0792447 1 60 0
13.6485 0.0792447 0.0792447 1 60 0
13.7485 0.0792447 0.0792447 1 60 0
13.8485 0.0792447 0.0792447 1 60 0
13.9485 0.0792447 0.0792447 1 60 0
14.0485 0.0792447 0.0792447 1 60 0
14.1485 0.0792448 0.0792448 1 60 0
14.1485 0.0792448 0.0792448 1 60 0
14.2485 0.0792448 0.0792448 1 60 0
14.3485 0.0792448 0.0792448 1 60 0
14.4485 0.0792448 0.0792448 1 60 0
14.5485 0.0792448 0.0792448 1 60 0
14.6485 0.0792448 0.0792448 1 60 0
14.7485 0.0792448 0.0792448 1 60 0
14.8485 0.0792448 0.0792448 1 60 0
14.9485 0.0792448 0.0792448 1 60 0
15.0485 0.0792448 0.0792448 1 60 0
12.7885 0.0792446 0.0792446 2 60 0
12.7835 0.0792446 0.0792446 1 60 0
12.7785 0.0792446 0.0792446 1 60 0
12.7685 0.0792446 0.0792446 1 60 0
12.7485 0.0792446 0.0792446 1 60 0
12.7085 0.0792446 0.0792446 1 60 0
12.6285 0.0792446 0.0792446 1 60 0
12.5285 0.0792446 0.0792446 1 60 0
12.4285 0.0792445 0.0792445 1 60 0
12.3285 0.0792445 0.0792445 1 60 0
12.2285 0.0792445 0.0792445 1 60 0
12.1285 0.0792445 0.0792445 1 60 0
12.0285 0.0792445 0.0792445 1 60 0
11.9285 0.0792445 0.0792445 1 60 0
11.8285 0.0792445 0.0792445 1 60 0
11.7285 0.0792444 0.0792444 1 60 0
11.6285 0.0792444 0.0792444 1 60 0
11.5285 0.0792444 0.0792444 1 60 0
11.4285 0.0792444 0.0792444 1 60 0
11.3285 0.0792444 0.0792444 1 60 0
11.2285 0.0792444 0.0792444 1 60 0
11.1285 0.0792443 0.0792443 1 60 0
11.0285 0.0792443 0.0792443 1 60 0
10.9285 0.0792443 0.0792443 1 60 0
10.8285 0.0792443 0.0792443 1 60 0
10.7285 0.0792443 0.0792443 1 60 0
10.6285 0.0792443 0.0792443 1 60 0
10.5285 0.0792442 0.0792442 1 60 0
10.4285 0.0792442 0.0792442 1 60 0
10.3285 0.0792442 0.0792442 1 60 0
10.2285 0.0792442 0.0792442 1 60 0
10.1285 0.0792442 0.0792442 1 60 0
10.0285 0.0792441 0.0792441 1 60 0
9.9285 0.0792441 0.0792441 1 60 0
9.8285 0.0792441 0.0792441 1 60 0
9.7285 0.0792441 0.0792441 1 60 0
9.6285 0.0792441 0.0792441 1 60 0
9.6285 0.0792441 0.0792441 1 60 0
9.5285 0.079244 0.079244 1 60 0
9.4285 0.079244 0.079244 1 60 0
9.3285 0.079244 0.079244 1 60 0
9.2285 0.079244 0.079244 1 60 0
9.1285 0.0792439 0.0792439 1 60 0
9.0285 0.0792439 0.0792439 1 60 0
8.9285 0.0792439 0.0792439 1 60 0
8.8285 0.0792439 0.0792439 1 60 0
8.7285 0.0792438 0.0792438 1 60 0
8.6285 0.0792438 0.0792438 1 60 0
8.5285 0.0792438 0.0792438 1 60 0
8.4285 0.0792437 0.0792437 1 60 0
8.3285 0.0792437 0.0792437 1 60 0
8.2285 0.0792437 0.0792437 1 60 0
8.1285 0.0792436 0.0792436 1 60 0
8.0285 0.0792436 0.0792436 1 60 0
7.9285 0.0792436 0.0792436 1 60 0
7.8285 0.0792435 0.0792435 1 60 0
7.8285 0.0792435 0.0792435 1 60 0
7.7285 0.0792435 0.0792435 1 60 0
7.6285 0.0792435 0.0792435 1 60 0
7.5285 0.0792434 0.0792434 1 60 0
7.4285 0.0792434 0.0792434 1 60 0
7.3285 0.0792434 0.0792434 1 60 0
7.2285 0.0792433 0.0792433 1 60 0
7.1285 0.0792433 0.0792433 1 60 0
7.0285 0.0792432 0.0792432 1 60 0
6.9285 0.0792432 0.0792432 1 60 0
6.8285 0.0792432 0.0792432 1 60 0
6.7285 0.0792431 0.0792431 1 60 0
6.6285 0.0792431 0.0792431 1 60 0
6.5285 0.079243 0.079243 1 60 0
6.4285 0.079243 0.079243 1 60 0
6.3285 0.0792429 0.0792429 1 60 0
6.2285 0.0792429 0.0792429 1 60 0
6.1285 0.0792428 0.0792428 1 60 0
6.0285 0.0792427 0.0792427 1 60 0
5.9285 0.0792427 0.0792427 1 60 0
5.8285 0.0792426 0.0792426 1 60 0
5.7285 0.0792426 0.0792426 1 60 0
5.6285 0.0792425 0.0792425 1 60 0
5.5285 0.0792424 0.0792424 1 60 0
5.4285 0.0792424 0.0792424 1 60 0
5.3285 0.0792423 0.0792423 1 60 0
5.2285 0.0792422 0.0792422 1 60 0
5.1285 0.0792421 0.0792421 1 60 0
5.0285 0.079242 0.079242 1 60 0
4.9285 0.079242 0.079242 1 60 0
4.8285 0.0792419 0.0792419 1 60 0
4.7285 0.0792418 0.0792418 1 60 0
4.6285 0.0792417 0.0792417 1 60 0
4.5285 0.0792416 0.0792416 1 60 0
4.4285 0.0792415 0.0792415 1 60 0
4.3285 0.0792414 0.0792414 1 60 0
4.2285 0.0792413 0.0792413 1 60 0
4.2285 0.0792413 0.0792413 1 60 0
4.1285 0.0792411 0.0792411 1 60 0
4.0285 0.079241 0.079241 1 60 0
3.9285 0.0792409 0.0792409 1 60 0
3.8285 0.0792407 0.0792407 1 60 0
3.8285 0.0792407 0.0792407 1 60 0
3.7285 0.0792406 0.0792406 1 60 0
3.6285 0.0792404 0.0792404 1 60 0
3.5285 0.0792403 0.0792403 1 60 0
3.4285 0.0792401 0.0792401 1 60 0
3.3285 0.0792399 0.0792399 1 60 0
3.2285 0.0792397 0.0792397 1 60 0
3.1285 0.0792395 0.0792395 1 60 0
3.0285 0.0792393 0.0792393 1 60 0
2.9285 0.079239 0.079239 1 60 0
2.8285 0.0792388 0.0792388 1 60 0
2.7285 0.0792385 0.0792385 1 60 0
2.6285 0.0792382 0.0792382 1 60 0
2.5285 0.0792379 0.0792379 1 60 0
2.4285 0.0792376 0.0792376 1 60 0
2.3285 0.0792372 0.0792372 1 60 0
2.2285 0.0792368 0.0792368 1 60 0
2.1285 0.0792363 0.0792363 1 60 0
2.0285 0.0792359 0.0792359 1 60 0
1.9285 0.0792353 0.0792353 1 60 0
1.8285 0.0792347 0.0792347 1 60 0
1.7285 0.0792341 0.0792341 1 60 0
1.6285 0.0792333 0.0792333 1 60 0
1.5285 0.0792325 0.0792325 1 60 0
1.4285 0.0792315 0.0792315 1 60 0
1.3285 0.0792304 0.0792304 1 60 0
1.2285 0.0792291 0.0792291 1 60 0
1.1285 0.0792276 0.0792276 1 60 0
1.0285 0.079226 0.079226 1 60 0
0.9285 0.0792236 0.0792236 1 60 0
0.8285 0.0792208 0.0792208 1 60 0
0.7285 0.0792174 0.0792174 1 60 0
0.6285 0.0792128 0.0792128 1 60 0
0.5285 0.0792065 0.0792065 1 60 0
0.4285 0.0792001 0.0792001 1 60 0
0.3285 0.0791823 0.0791823 1 60 0
0.2285 0.0791545 0.0791545 1 60 0
0.1285 0.0790838 0.0790838 1 60 0
0.0285011 0.0785382 0.0785382 1 60 0
-0.0214982 0.0782648 0.0782648 1 60 0
14.7685 0.0792448 0.0792448 2 61 0
14.7735 0.0792448 0.0792448 1 61 0
14.7785 0.0792448 0.0792448 1 61 0
14.7885 0.0792448 0.0792448 1 61 0
14.8085 0.0792448 0.0792448 1 61 0
14.8485 0.0792448 0.0792448 1 61 0
14.9285 0.0792448 0.0792448 1 61 0
15.0285 0.0792448 0.0792448 1 61 0
14.7685 0.0792448 0.0792448 2 61 0
14.7635 0.0792448 0.0792448 1 61 0
14.7585 0.0792448 0.0792448 1 61 0
14.7485 0.0792448 0.0792448 1 61 0
14.7485 0.0792448 0.0792448 1 61 0
14.7285 0.0792448 0.0792448 1 61 0
14.6885 0.0792448 0.0792448 1 61 0
14.6085 0.0792448 0.0792448 1 61 0
14.5085 0.0792448 0.0792448 1 61 0
14.4085 0.0792448 0.0792448 1 61 0
14.3085 0.0792448 0.0792448 1 61 0
14.2085 0.0792448 0.0792448 1 61 0
14.1085 0.0792447 0.0792447 1 61 0
14.0085 0.0792447 0.0792447 1 61 0
13.9085 0.0792447 0.0792447 1 61 0
13.8085 0.0792447 0.0792447 1 61 0
13.7085 0.0792447 0.0792447 1 61 0
13.6085 0.0792447 0.0792447 1 61 0
13.5085 0.0792447 0.0792447 1 61 0
13.4085 0.0792447 0.0792447 1 61 0
13.3085 0.0792447 0.0792447 1 61 0
13.2085 0.0792446 0.0792446 1 61 0
13.1085 0.0792446 0.0792446 1 61 0
13.0085 0.0792446 0.0792446 1 61 0
12.9085 0.0792446 0.0792446 1 61 0
12.8085 0.0792446 0.0792446 1 61 0
12.7085 0.0792446 0.0792446 1 61 0
12.6085 0.0792446 0.0792446 1 61 0
12.6085 0.0792446 0.0792446 1 61 0
12.5085 0.0792446 0.0792446 1 61 0
12.5085 0.0792446 0.0792446 1 61 0
12.4085 0.0792445 0.0792445 1 61 0
12.3085 0.0792445 0.0792445 1 61 0
12.2085 0.0792445 0.0792445 1 61 0
12.2085 0.0792445 0.0792445 1 61 0
12.1085 0.0792445 0.0792445 1 61 0
12.0085 0.0792445 0.0792445 1 61 0
11.9085 0.0792445 0.0792445 1 61 0
11.8085 0.0792445 0.0792445 1 61 0
11.7085 0.0792444 0.0792444 1 61 0
11.6085 0.0792444 0.0792444 1 61 0
11.5085 0.0792444 0.0792444 1 61 0
11.4085 0.0792444 0.0792444 1 61 0
11.3085 0.0792444 0.0792444 1 61 0
11.2085 0.0792444 0.0792444 1 61 0
11.1085 0.0792443 0.0792443 1 61 0
11.0085 0.0792443 0.0792443 1 61 0
10.9085 0.0792443 0.0792443 1 61 0
10.8085 0.0792443 0.0792443 1 61 0
10.7085 0.0792443 0.0792443 1 61 0
10.7085 0.0792443 0.0792443 1 61 0
10.6085 0.0792443 0.0792443 1 61 0
10.5085 0.0792442 0.0792442 1 61 0
10.4085 0.0792442 0.0792442 1 61 0
10.3085 0.0792442 0.0792442 1 61 0
10.2085 0.0792442 0.0792442 1 61 0
10.1085 0.0792442 0.0792442 1 61 0
10.0085 0.0792441 0.0792441 1 61 0
9.9085 0.0792441 0.0792441 1 61 0
9.8085 0.0792441 0.0792441 1 61 0
9.7085 0.0792441 0.0792441 1 61 0
9.7085 0.0792441 0.0792441 1 61 0
9.6085 0.079244 0.079244 1 61 0
9.5085 0.079244 0.079244 1 61 0
9.4085 0.079244 0.079244 1 61 0
9.3085 0.079244 0.079244 1 61 0
9.2085 0.079244 0.079244 1 61 0
9.1085 0.0792439 0.0792439 1 61 0
9.0085 0.0792439 0.0792439 1 61 0
8.9085 0.0792439 0.0792439 1 61 0
8.8085 0.0792438 0.0792438 1 61 0
8.7085 0.0792438 0.0792438 1 61 0
8.6085 0.0792438 0.0792438 1 61 0
8.5085 0.0792438 0.0792438 1 61 0
8.4085 0.0792437 0.0792437 1 61 0
8.3085 0.0792437 0.0792437 1 61 0
8.2085 0.0792437 0.0792437 1 61 0
8.1085 0.0792436 0.0792436 1 61 0
8.0085 0.0792436 0.0792436 1 61 0
7.9085 0.0792436 0.0792436 1 61 0
7.8085 0.0792435 0.0792435 1 61 0
7.7085 0.0792435 0.0792435 1 61 0
7.6085 0.0792435 0.0792435 1 61 0
7.5085 0.0792434 0.0792434 1 61 0
7.4085 0.0792434 0.0792434 1 61 0
7.3085 0.0792434 0.0792434 1 61 0
7.2085 0.0792433 0.0792433 1 61 0
7.1085 0.0792433 0.0792433 1 61 0
7.0085 0.0792432 0.0792432 1 61 0
6.9085 0.0792432 0.0792432 1 61 0
6.8085 0.0792431 0.0792431 1 61 0
6.7085 0.0792431 0.0792431 1 61 0
6.6085 0.0792431 0.0792431 1 61 0
6.5085 0.079243 0.079243 1 61 0
6.4085 0.079243 0.079243 1 61 0
6.3085 0.0792429 0.0792429 1 61 0
6.2085 0.0792428 0.0792428 1 61 0
6.1085 0.0792428 0.0792428 1 61 0
6.0085 0.0792427 0.0792427 1 61 0
5.9085 0.0792427 0.0792427 1 61 0
5.8085 0.0792426 0.0792426 1 61 0
5.7085 0.0792425 0.0792425 1 61 0
5.6085 0.0792425 0.0792425 1 61 0
5.5085 0.0792424 0.0792424 1 61 0
5.4085 0.0792423 0.0792423 1 61 0
5.3085 0.0792423 0.0792423 1 61 0
5.2085 0.0792422 0.0792422 1 61 0
5.1085 0.0792421 0.0792421 1 61 0
5.0085 0.079242 0.079242 1 61 0
4.9085 0.079242 0.079242 1 61 0
4.8085 0.0792419 0.0792419 1 61 0
4.7085 0.0792418 0.0792418 1 61 0
4.6085 0.0792417 0.0792417 1 61 0
4.5085 0.0792416 0.0792416 1 61 0
4.4085 0.0792415 0.0792415 1 61 0
4.3085 0.0792413 0.0792413 1 61 0
4.2085 0.0792412 0.0792412 1 61 0
4.1085 0.0792411 0.0792411 1 61 0
4.0085 0.079241 0.079241 1 61 0
3.9085 0.0792408 0.0792408 1 61 0
3.8085 0.0792407 0.0792407 1 61 0
3.7085 0.0792406 0.0792406 1 61 0
3.6085 0.0792404 0.0792404 1 61 0
3.5085 0.0792402 0.0792402 1 61 0
3.4085 0.0792401 0.0792401 1 61 0
3.3085 0.0792399 0.0792399 1 61 0
3.2085 0.0792397 0.0792397 1 61 0
3.1085 0.0792395 0.0792395 1 61 0
3.0085 0.0792392 0.0792392 1 61 0
2.9085 0.079239 0.079239 1 61 0
2.8085 0.0792387 0.0792387 1 61 0
2.7085 0.0792385 0.0792385 1 61 0
2.6085 0.0792382 0.0792382 1 61 0
2.5085 0.0792378 0.0792378 1 61 0
2.4085 0.0792375 0.0792375 1 61 0
2.3085 0.0792371 0.0792371 1 61 0
2.2085 0.0792367 0.0792367 1 61 0
2.1085 0.0792363 0.0792363 1 61 0
2.0085 0.0792358 0.0792358 1 61 0
1.9085 0.0792352 0.0792352 1 61 0
1.8085 0.0792346 0.0792346 1 61 0
1.7085 0.0792339 0.0792339 1 61 0
1.6085 0.0792331 0.0792331 1 61 0
1.5085 0.0792323 0.0792323 1 61 0
1.4085 0.0792314 0.0792314 1 61 0
1.3085 0.0792301 0.0792301 1 61 0
1.2085 0.0792288 0.0792288 1 61 0
1.1085 0.0792272 0.0792272 1 61 0
1.0085 0.0792254 0.0792254 1 61 0
0.908499 0.0792231 0.0792231 1 61 0
0.808499 0.0792202 0.0792202 1 61 0
0.708499 0.0792165 0.0792165 1 61 0
0.608499 0.0792117 0.0792117 1 61 0
0.508499 0.0792049 0.0792049 1 61 0
0.408499 0.0791948 0.0791948 1 61 0
0.308499 0.0791782 0.0791782 1 61 0
0.308499 0.0791782 0.0791782 1 61 0
0.208499 0.0791458 0.0791458 1 61 0
0.108499 0.0790542 0.0790542 1 61 0
0.00849868 0.0789627 0.0789627 1 61 0
-0.0164986 0.0785925 0.0785925 1 61 0
14.1485 0.0792448 0.0792448 2 62 0
14.1535 0.0792448 0.0792448 1 62 0
14.1585 0.0792448 0.0792448 1 62 0
14.1685 0.0792448 0.0792448 1 62 0
14.1885 0.0792448 0.0792448 1 62 0
14.2285 0.0792448 0.0792448 1 62 0
14.3085 0.0792448 0.0792448 1 62 0
14.4085 0.0792448 0.0792448 1 62 0
14.5085 0.0792448 0.0792448 1 62 0
14.6085 0.0792448 0.0792448 1 62 0
14.6085 0.0792448 0.0792448 1 62 0
14.7085 0.0792448 0.0792448 1 62 0
14.8085 0.0792448 0.0792448 1 62 0
14.9085 0.0792448 0.0792448 1 62 0
15.0085 0.0792448 0.0792448 1 62 0
14.1485 0.0792448 0.0792448 2 62 0
14.1435 0.0792448 0.0792448 1 62 0
14.1385 0.0792447 0.0792447 1 62 0
14.1285 0.0792447 0.0792447 1 62 0
14.1085 0.0792447 0.0792447 1 62 0
14.0685 0.0792447 0.0792447 1 62 0
13.9885 0.0792447 0.0792447 1 62 0
13.8885 0.0792447 0.0792447 1 62 0
13.7885 0.0792447 0.0792447 1 62 0
13.6885 0.0792447 0.0792447 1 62 0
13.5885 0.0792447 0.0792447 1 62 0
13.4885 0.0792447 0.0792447 1 62 0
13.3885 0.0792447 0.0792447 1 62 0
13.2885 0.0792447 0.0792447 1 62 0
13.1885 0.0792446 0.0792446 1 62 0
13.1885 0.0792446 0.0792446 1 62 0
13.0885 0.0792446 0.0792446 1 62 0
12.9885 0.0792446 0.0792446 1 62 0
12.8885 0.0792446 0.0792446 1 62 0
12.7885 0.0792446 0.0792446 1 62 0
12.6885 0.0792446 0.0792446 1 62 0
12.5885 0.0792446 0.0792446 1 62 0
12.4885 0.0792446 0.0792446 1 62 0
12.3885 0.0792445 0.0792445 1 62 0
12.3885 0.0792445 0.0792445 1 62 0
12.2885 0.0792445 0.0792445 1 62 0
12.1885 0.0792445 0.0792445 1 62 0
12.0885 0.0792445 0.0792445 1 62 0
11.9885 0.0792445 0.0792445 1 62 0
11.8885 0.0792445 0.0792445 1 62 0
11.8385 0.0792445 0.0792445 1 62 0
11.7385 0.0792444 0.0792444 1 62 0
11.6385 0.0792444 0.0792444 1 62 0
11.5385 0.0792444 0.0792444 1 62 0
11.4385 0.0792444 0.0792444 1 62 0
11.3385 0.0792444 0.0792444 1 62 0
11.2385 0.0792444 0.0792444 1 62 0
11.1385 0.0792443 0.0792443 1 62 0
11.0385 0.0792443 0.0792443 1 62 0
10.9385 0.0792443 0.0792443 1 62 0
10.8385 0.0792443 0.0792443 1 62 0
10.7385 0.0792443 0.0792443 1 62 0
10.6385 0.0792443 0.0792443 1 62 0
10.5385 0.0792442 0.0792442 1 62 0
10.4385 0.0792442 0.0792442 1 62 0
10.3385 0.0792442 0.0792442 1 62 0
10.2385 0.0792442 0.0792442 1 62 0
10.1385 0.0792442 0.0792442 1 62 0
10.0385 0.0792441 0.0792441 1 62 0
9.9385 0.0792441 0.0792441 1 62 0
9.8385 0.0792441 0.0792441 1 62 0
9.7385 0.0792441 0.0792441 1 62 0
9.6385 0.0792441 0.0792441 1 62 0
9.5385 0.079244 0.079244 1 62 0
9.4385 0.079244 0.079244 1 62 0
9.3385 0.079244 0.079244 1 62 0
9.2385 0.079244 0.079244 1 62 0
9.1385 0.0792439 0.0792439 1 62 0
9.0385 0.0792439 0.0792439 1 62 0
8.9385 0.0792439 0.0792439 1 62 0
8.8385 0.0792439 0.0792439 1 62 0
8.7385 0.0792438 0.0792438 1 62 0
8.7385 0.0792438 0.0792438 1 62 0
8.6385 0.0792438 0.0792438 1 62 0
8.5385 0.0792438 0.0792438 1 62 0
8.4385 0.0792437 0.0792437 1 62 0
8.3385 0.0792437 0.0792437 1 62 0
8.2385 0.0792437 0.0792437 1 62 0
8.1385 0.0792437 0.0792437 1 62 0
8.0385 0.0792436 0.0792436 1 62 0
7.9385 0.0792436 0.0792436 1 62 0
7.8385 0.0792436 0.0792436 1 62 0
7.7385 0.0792435 0.0792435 1 62 0
7.6385 0.0792435 0.0792435 1 62 0
7.5385 0.0792434 0.0792434 1 62 0
7.4385 0.0792434 0.0792434 1 62 0
7.3385 0.0792434 0.0792434 1 62 0
7.2385 0.0792433 0.0792433 1 62 0
7.1385 0.0792433 0.0792433 1 62 0
7.0385 0.0792432 0.0792432 1 62 0
6.9385 0.0792432 0.0792432 1 62 0
6.8385 0.0792432 0.0792432 1 62 0
6.7385 0.0792431 0.0792431 1 62 0
6.6385 0.0792431 0.0792431 1 62 0
6.5385 0.079243 0.079243 1 62 0
6.4385 0.079243 0.079243 1 62 0
6.3385 0.0792429 0.0792429 1 62 0
6.2385 0.0792429 0.0792429 1 62 0
6.1385 0.0792428 0.0792428 1 62 0
6.0385 0.0792428 0.0792428 1 62 0
5.9385 0.0792427 0.0792427 1 62 0
5.8385 0.0792426 0.0792426 1 62 0
5.7385 0.0792426 0.0792426 1 62 0
5.6385 0.0792425 0.0792425 1 62 0
5.5385 0.0792424 0.0792424 1 62 0
5.4385 0.0792424 0.0792424 1 62 0
5.3385 0.0792423 0.0792423 1 62 0
5.2385 0.0792422 0.0792422 1 62 0
5.1385 0.0792421 0.0792421 1 62 0
5.0385 0.0792421 0.0792421 1 62 0
4.9385 0.079242 0.079242 1 62 0
4.8385 0.0792419 0.0792419 1 62 0
4.7385 0.0792418 0.0792418 1 62 0
4.6385 0.0792417 0.0792417 1 62 0
4.5385 0.0792416 0.0792416 1 62 0
4.5385 0.0792416 0.0792416 1 62 0
4.4385 0.0792415 0.0792415 1 62 0
4.3385 0.0792414 0.0792414 1 62 0
4.2385 0.0792413 0.0792413 1 62 0
4.1385 0.0792411 0.0792411 1 62 0
4.0385 0.079241 0.079241 1 62 0
3.9385 0.0792409 0.0792409 1 62 0
3.8385 0.0792408 0.0792408 1 62 0
3.7385 0.0792406 0.0792406 1 62 0
3.6385 0.0792404 0.0792404 1 62 0
3.5385 0.0792403 0.0792403 1 62 0
3.4385 0.0792401 0.0792401 1 62 0
3.3385 0.0792399 0.0792399 1 62 0
3.2385 0.0792397 0.0792397 1 62 0
3.1385 0.0792395 0.0792395 1 62 0
3.0385 0.0792393 0.0792393 1 62 0
2.9385 0.0792391 0.0792391 1 62 0
2.8385 0.0792388 0.0792388 1 62 0
2.7385 0.0792385 0.0792385 1 62 0
2.6385 0.0792383 0.0792383 1 62 0
2.5385 0.0792379 0.0792379 1 62 0
2.4385 0.0792376 0.0792376 1 62 0
2.3385 0.0792372 0.0792372 1 62 0
2.2385 0.0792368 0.0792368 1 62 0
2.1385 0.0792364 0.0792364 1 62 0
2.0385 0.079236 0.079236 1 62 0
1.9385 0.0792354 0.0792354 1 62 0
1.8385 0.0792348 0.0792348 1 62 0
1.7385 0.0792341 0.0792341 1 62 0
1.6385 0.0792334 0.0792334 1 62 0
1.5385 0.0792326 0.0792326 1 62 0
1.4385 0.0792316 0.0792316 1 62 0
1.3385 0.0792305 0.0792305 1 62 0
1.2385 0.0792292 0.0792292 1 62 0
1.1385 0.0792277 0.0792277 1 62 0
1.0385 0.079226 0.079226 1 62 0
0.9385 0.0792238 0.0792238 1 62 0
0.8385 0.0792211 0.0792211 1 62 0
0.7385 0.0792177 0.0792177 1 62 0
0.6385 0.0792133 0.0792133 1 62 0
0.5385 0.0792072 0.0792072 1 62 0
0.4385 0.0791983 0.0791983 1 62 0
0.3385 0.0791842 0.0791842 1 62 0
0.2385 0.0791583 0.0791583 1 62 0
0.1385 0.0790955 0.0790955 1 62 0
0.0385007 0.0787163 0.0787163 1 62 0
0.0384999 0.0787163 0.0787163 1 62 0
-0.0114998 0.0785271 0.0785271 1 62 0
9.6285 0.0792441 0.0792441 2 63 0
9.6335 0.0792441 0.0792441 1 63 0
9.6385 0.0792441 0.0792441 1 63 0
9.6485 0.0792441 0.0792441 1 63 0
9.6685 0.0792441 0.0792441 1 63 0
9.7085 0.0792441 0.0792441 1 63 0
9.7885 0.0792441 0.0792441 1 63 0
9.8885 0.0792441 0.0792441 1 63 0
9.9885 0.0792441 0.0792441 1 63 0
10.0885 0.0792442 0.0792442 1 63 0
10.1885 0.0792442 0.0792442 1 63 0
10.2885 0.0792442 0.0792442 1 63 0
10.3885 0.0792442 0.0792442 1 63 0
10.4885 0.0792442 0.0792442 1 63 0
10.5885 0.0792443 0.0792443 1 63 0
10.6885 0.0792443 0.0792443 1 63 0
10.7885 0.0792443 0.0792443 1 63 0
10.8885 0.0792443 0.0792443 1 63 0
10.9885 0.0792443 0.0792443 1 63 0
11.0885 0.0792443 0.0792443 1 63 0
11.1885 0.0792444 0.0792444 1 63 0
11.2885 0.0792444 0.0792444 1 63 0
11.3885 0.0792444 0.0792444 1 63 0
11.4885 0.0792444 0.0792444 1 63 0
11.5885 0.0792444 0.0792444 1 63 0
11.6885 0.0792444 0.0792444 1 63 0
11.7885 0.0792445 0.0792445 1 63 0
11.8885 0.0792445 0.0792445 1 63 0
11.9885 0.0792445 0.0792445 1 63 0
12.0885 0.0792445 0.0792445 1 63 0
12.1885 0.0792445 0.0792445 1 63 0
12.2885 0.0792445 0.0792445 1 63 0
12.3885 0.0792445 0.0792445 1 63 0
12.4885 0.0792446 0.0792446 1 63 0
12.5885 0.0792446 0.0792446 1 63 0
12.6885 0.0792446 0.0792446 1 63 0
12.7885 0.0792446 0.0792446 1 63 0
12.8885 0.0792446 0.0792446 1 63 0
12.9885 0.0792448 0.0792448 1 63 0
13.0885 0.0792446 0.0792446 1 63 0
13.1885 0.0792446 0.0792446 1 63 0
13.2885 0.0792447 0.0792447 1 63 0
13.3885 0.0792447 0.0792447 1 63 0
13.4885 0.0792447 0.0792447 1 63 0
13.5885 0.0792447 0.0792447 1 63 0
13.6885 0.0792447 0.0792447 1 63 0
13.7885 0.0792447 0.0792447 1 63 0
13.8885 0.0792447 0.0792447 1 63 0
13.9885 0.0792447 0.0792447 1 63 0
14.0885 0.0792447 0.0792447 1 63 0
14.1885 0.0792448 0.0792448 1 63 0
14.2885 0.0792448 0.0792448 1 63 0
14.3885 0.0792448 0.0792448 1 63 0
14.4885 0.0792448 0.0792448 1 63 0
14.5885 0.0792448 0.0792448 1 63 0
14.6885 0.0792448 0.0792448 1 63 0
14.7885 0.0792448 0.0792448 1 63 0
14.8885 0.0792448 0.0792448 1 63 0
14.9885 0.0792448 0.0792448 1 63 0
15.0885 0.0792448 0.0792448 1 63 0
9.6285 0.0792441 0.0792441 2 63 0
9.6235 0.0792441 0.0792441 1 63 0
9.6185 0.079244 0.079244 1 63 0
9.6085 0.079244 0.079244 1 63 0
9.5885 0.079244 0.079244 1 63 0
9.5485 0.079244 0.079244 1 63 0
9.4685 0.079244 0.079244 1 63 0
9.3685 0.079244 0.079244 1 63 0
9.2685 0.079244 0.079244 1 63 0
9.1685 0.0792439 0.0792439 1 63 0
9.0685 0.0792439 0.0792439 1 63 0
8.9685 0.0792439 0.0792439 1 63 0
8.8685 0.0792439 0.0792439 1 63 0
8.7685 0.0792438 0.0792438 1 63 0
8.6685 0.0792438 0.0792438 1 63 0
8.5685 0.0792438 0.0792438 1 63 0
8.4685 0.0792438 0.0792438 1 63 0
8.3685 0.0792437 0.0792437 1 63 0
8.2685 0.0792437 0.0792437 1 63 0
8.1685 0.0792437 0.0792437 1 63 0
8.0685 0.0792436 0.0792436 1 63 0
7.9685 0.0792436 0.0792436 1 63 0
7.8685 0.0792436 0.0792436 1 63 0
7.7685 0.0792435 0.0792435 1 63 0
7.6685 0.0792435 0.0792435 1 63 0
7.5685 0.0792435 0.0792435 1 63 0
7.4685 0.0792434 0.0792434 1 63 0
7.3685 0.0792434 0.0792434 1 63 0
7.2685 0.0792433 0.0792433 1 63 0
7.1685 0.0792433 0.0792433 1 63 0
7.0685 0.0792433 0.0792433 1 63 0
6.9685 0.0792432 0.0792432 1 63 0
6.8685 0.0792432 0.0792432 1 63 0
6.7685 0.0792431 0.0792431 1 63 0
6.6685 0.0792431 0.0792431 1 63 0
6.5685 0.079243 0.079243 1 63 0
6.4685 0.079243 0.079243 1 63 0
6.3685 0.0792429 0.0792429 1 63 0
6.2685 0.0792429 0.0792429 1 63 0
6.1685 0.0792428 0.0792428 1 63 0
6.0685 0.0792428 0.0792428 1 63 0
5.9685 0.0792427 0.0792427 1 63 0
5.8685 0.0792426 0.0792426 1 63 0
5.7685 0.0792426 0.0792426 1 63 0
5.6685 0.0792425 0.0792425 1 63 0
5.6685 0.0792425 0.0792425 1 63 0
5.5685 0.0792425 0.0792425 1 63 0
5.4685 0.0792424 0.0792424 1 63 0
5.3685 0.0792423 0.0792423 1 63 0
5.2685 0.0792422 0.0792422 1 63 0
5.1685 0.0792422 0.0792422 1 63 0
5.0685 0.0792421 0.0792421 1 63 0
4.9685 0.079242 0.079242 1 63 0
4.8685 0.0792419 0.0792419 1 63 0
4.7685 0.0792418 0.0792418 1 63 0
4.6685 0.0792417 0.0792417 1 63 0
4.5685 0.0792416 0.0792416 1 63 0
4.4685 0.0792415 0.0792415 1 63 0
4.3685 0.0792414 0.0792414 1 63 0
4.2685 0.0792413 0.0792413 1 63 0
4.1685 0.0792412 0.0792412 1 63 0
4.0685 0.0792411 0.0792411 1 63 0
3.9685 0.0792409 0.0792409 1 63 0
3.8685 0.0792408 0.0792408 1 63 0
3.7685 0.0792406 0.0792406 1 63 0
3.6685 0.0792405 0.0792405 1 63 0
3.5685 0.0792403 0.0792403 1 63 0
3.4685 0.0792402 0.0792402 1 63 0
3.3685 0.07924 0.07924 1 63 0
3.2685 0.0792398 0.0792398 1 63 0
3.1685 0.0792396 0.0792396 1 63 0
3.1685 0.0792396 0.0792396 1 63 0
3.0685 0.0792394 0.0792394 1 63 0
2.9685 0.0792391 0.0792391 1 63 0
2.8685 0.0792389 0.0792389 1 63 0
2.7685 0.0792386 0.0792386 1 63 0
2.6685 0.0792383 0.0792383 1 63 0
2.5685 0.079238 0.079238 1 63 0
2.4685 0.0792377 0.0792377 1 63 0
2.3685 0.0792373 0.0792373 1 63 0
2.2685 0.079237 0.079237 1 63 0
2.1685 0.0792365 0.0792365 1 63 0
2.0685 0.0792361 0.0792361 1 63 0
1.9685 0.0792355 0.0792355 1 63 0
1.8685 0.079235 0.079235 1 63 0
1.7685 0.0792343 0.0792343 1 63 0
1.6685 0.0792337 0.0792337 1 63 0
1.5685 0.0792328 0.0792328 1 63 0
1.4685 0.0792319 0.0792319 1 63 0
1.3685 0.0792309 0.0792309 1 63 0
1.2685 0.0792296 0.0792296 1 63 0
1.1685 0.0792282 0.0792282 1 63 0
1.0685 0.0792265 0.0792265 1 63 0
0.9685 0.0792245 0.0792245 1 63 0
0.8685 0.079222 0.079222 1 63 0
0.7685 0.0792189 0.0792189 1 63 0
0.6685 0.0792148 0.0792148 1 63 0
0.5685 0.0792092 0.0792092 1 63 0
0.4685 0.0792014 0.0792014 1 63 0
-0.0821029 0.0782791 0.0782791 2 63 0
7.8285 0.0792435 0.0792435 2 64 0
7.8335 0.0792436 0.0792436 2 64 0
7.8385 0.0792436 0.0792436 1 64 0
7.8485 0.0792436 0.0792436 1 64 0
7.8685 0.0792436 0.0792436 1 64 0
7.9085 0.0792436 0.0792436 1 64 0
7.9885 0.0792436 0.0792436 1 64 0
8.0885 0.0792436 0.0792436 1 64 0
8.1885 0.0792437 0.0792437 1 64 0
8.2885 0.0792437 0.0792437 1 64 0
8.3885 0.0792437 0.0792437 1 64 0
8.4885 0.0792438 0.0792438 1 64 0
8.5885 0.0792438 0.0792438 1 64 0
8.6885 0.0792438 0.0792438 1 64 0
8.7885 0.0792438 0.0792438 1 64 0
8.8885 0.0792439 0.0792439 1 64 0
8.9885 0.0792439 0.0792439 1 64 0
9.0885 0.0792439 0.0792439 1 64 0
9.1885 0.0792439 0.0792439 1 64 0
9.2885 0.079244 0.079244 1 64 0
9.3885 0.079244 0.079244 1 64 0
9.4885 0.079244 0.079244 1 64 0
9.5885 0.079244 0.079244 1 64 0
9.6885 0.0792441 0.0792441 1 64 0
9.7885 0.0792441 0.0792441 1 64 0
9.8885 0.0792441 0.0792441 1 64 0
9.9885 0.0792441 0.0792441 1 64 0
10.0885 0.0792442 0.0792442 1 64 0
10.1885 0.0792442 0.0792442 1 64 0
10.2885 0.0792442 0.0792442 1 64 0
10.3885 0.0792442 0.0792442 1 64 0
10.4885 0.0792442 0.0792442 1 64 0
10.5885 0.0792443 0.0792443 1 64 0
10.6885 0.0792443 0.0792443 1 64 0
10.7885 0.0792443 0.0792443 1 64 0
10.8885 0.0792443 0.0792443 1 64 0
10.9885 0.0792443 0.0792443 1 64 0
11.0885 0.0792443 0.0792443 1 64 0
11.1885 0.0792444 0.0792444 1 64 0
11.2885 0.0792444 0.0792444 1 64 0
11.3885 0.0792444 0.0792444 1 64 0
11.4885 0.0792444 0.0792444 1 64 0
11.5885 0.0792444 0.0792444 1 64 0
11.6885 0.0792444 0.0792444 1 64 0
11.7885 0.0792445 0.0792445 1 64 0
11.8885 0.0792445 0.0792445 1 64 0
11.9885 0.0792445 0.0792445 1 64 0
12.0885 0.0792445 0.0792445 1 64 0
12.1885 0.0792445 0.0792445 1 64 0
12.2885 0.0792445 0.0792445 1 64 0
12.3885 0.0792445 0.0792445 1 64 0
12.4885 0.0792446 0.0792446 1 64 0
12.5885 0.0792446 0.0792446 1 64 0
12.6885 0.0792446 0.0792446 1 64 0
12.7885 0.0792446 0.0792446 1 64 0
12.8885 0.0792446 0.0792446 1 64 0
12.9885 0.0792446 0.0792446 1 64 0
13.0885 0.0792446 0.0792446 1 64 0
13.1885 0.0792446 0.0792446 1 64 0
13.2885 0.0792447 0.0792447 1 64 0
13.3885 0.0792447 0.0792447 1 64 0
13.4885 0.0792447 0.0792447 1 64 0
13.5885 0.0792447 0.0792447 1 64 0
13.6885 0.0792447 0.0792447 1 64 0
13.7885 0.0792447 0.0792447 1 64 0
13.8885 0.0792447 0.0792447 1 64 0
13.9885 0.0792447 0.0792447 1 64 0
14.0885 0.0792447 0.0792447 1 64 0
14.1885 0.0792448 0.0792448 1 64 0
14.2885 0.0792448 0.0792448 1 64 0
14.3885 0.0792448 0.0792448 1 64 0
14.4885 0.0792448 0.0792448 1 64 0
14.5885 0.0792448 0.0792448 1 64 0
14.6885 0.0792448 0.0792448 1 64 0
14.7885 0.0792448 0.0792448 1 64 0
14.8885 0.0792448 0.0792448 1 64 0
14.9885 0.0792448 0.0792448 1 64 0
15.0885 0.0792448 0.0792448 1 64 0
7.8285 0.0792435 0.0792435 2 64 0
7.8235 0.0792435 0.0792435 1 64 0
7.8185 0.0792435 0.0792435 1 64 0
7.8085 0.0792435 0.0792435 1 64 0
7.7885 0.0792435 0.0792435 1 64 0
7.7485 0.0792435 0.0792435 1 64 0
7.6685 0.0792435 0.0792435 1 64 0
7.5685 0.0792435 0.0792435 1 64 0
7.4685 0.0792434 0.0792434 1 64 0
7.3685 0.0792434 0.0792434 1 64 0
7.2685 0.0792433 0.0792433 1 64 0
7.1685 0.0792433 0.0792433 1 64 0
7.0685 0.0792433 0.0792433 1 64 0
7.0685 0.0792433 0.0792433 1 64 0
6.9685 0.0792432 0.0792432 1 64 0
6.8685 0.0792432 0.0792432 1 64 0
6.7685 0.0792431 0.0792431 1 64 0
6.6685 0.0792431 0.0792431 1 64 0
6.5685 0.079243 0.079243 1 64 0
6.4685 0.079243 0.079243 1 64 0
6.3685 0.0792429 0.0792429 1 64 0
6.2685 0.0792429 0.0792429 1 64 0
6.1685 0.0792428 0.0792428 1 64 0
6.0685 0.0792428 0.0792428 1 64 0
5.9685 0.0792427 0.0792427 1 64 0
5.8685 0.0792426 0.0792426 1 64 0
5.7685 0.0792426 0.0792426 1 64 0
5.6685 0.0792425 0.0792425 1 64 0
5.5685 0.0792425 0.0792425 1 64 0
5.4685 0.0792424 0.0792424 1 64 0
5.3685 0.0792423 0.0792423 1 64 0
5.2685 0.0792422 0.0792422 1 64 0
5.1685 0.0792422 0.0792422 1 64 0
5.0685 0.0792421 0.0792421 1 64 0
4.9685 0.079242 0.079242 1 64 0
4.8685 0.0792419 0.0792419 1 64 0
4.7685 0.0792418 0.0792418 1 64 0
4.6685 0.0792417 0.0792417 1 64 0
4.5685 0.0792416 0.0792416 1 64 0
4.4685 0.0792415 0.0792415 1 64 0
4.3685 0.0792414 0.0792414 1 64 0
4.2685 0.0792413 0.0792413 1 64 0
4.1685 0.0792412 0.0792412 1 64 0
4.0685 0.0792411 0.0792411 1 64 0
3.9685 0.0792409 0.0792409 1 64 0
3.8685 0.0792408 0.0792408 1 64 0
3.7685 0.0792406 0.0792406 1 64 0
3.6685 0.0792405 0.0792405 1 64 0
3.5685 0.0792403 0.0792403 1 64 0
3.4685 0.0792402 0.0792402 1 64 0
3.3685 0.07924 0.07924 1 64 0
3.2685 0.0792398 0.0792398 1 64 0
3.1685 0.0792396 0.0792396 1 64 0
3.0685 0.0792394 0.0792394 1 64 0
2.9685 0.0792391 0.0792391 1 64 0
2.8685 0.0792389 0.0792389 1 64 0
2.8685 0.0792389 0.0792389 1 64 0
2.7685 0.0792386 0.0792386 1 64 0
2.6685 0.0792383 0.0792383 1 64 0
2.5685 0.079238 0.079238 1 64 0
2.4685 0.0792377 0.0792377 1 64 0
